# .PCD v0.7 - Point Cloud Data file format
VERSION 0.7
FIELDS x y z
SIZE 4 4 4
TYPE F F F
COUNT 1 1 1
WIDTH 1525
HEIGHT 1
VIEWPOINT 0 0 0 1 0 0 0
POINTS 1525
DATA ascii
-6.2976027 12.216168 -1.6337472
-6.4142036 12.046021 -1.6405035
-6.5286956 11.868441 -1.6476547
-6.6188149 11.720362 -1.653532
-6.6734695 11.635383 -1.6576002
-6.7322168 11.528614 -1.6612604
-6.8163285 11.364745 -1.6665083
-6.910059 11.161493 -1.672116
-6.984601 10.989714 -1.6772455
-7.0643444 10.807615 -1.6833762
-7.1424828 10.609795 -1.6897086
-7.2183828 10.42286 -1.6974279
-7.3148546 10.254764 -1.7111418
-7.3055925 9.9417858 -1.6979828
-7.3413897 10.067618 -1.7102463
-7.3187141 9.8373041 -1.6981043
-7.3410931 9.6740675 -1.6988614
-7.3487558 8.9185209 -1.6908547
-7.3096619 8.7554235 -1.6818982
-5.1825299 2.6900043 -1.7935125
-5.1082511 2.4219322 -1.8279599
-5.138216 2.546144 -1.8108892
-4.9853525 2.1649604 -1.8534257
-5.0491939 2.2899637 -1.8418229
-4.0917511 1.6477833 -1.823723
-4.2329364 1.6873646 -1.8347282
-4.4118838 1.7457166 -1.8481268
-4.6064625 1.8090625 -1.8635225
-4.8198509 1.8779674 -1.8815019
-4.9609756 2.0222654 -1.8759789
-4.8223081 1.8550158 -1.8861759
6.8775778 12.57783 -1.5740857
7.3755636 12.159754 -1.6305348
7.2145972 12.254906 -1.6065851
7.0490246 12.380204 -1.5859383
6.9403834 12.479974 -1.5749243
-1.7722086 15.893724 -1.5877582
-1.9072126 15.866379 -1.5914899
-2.0525479 15.835197 -1.5958617
7.6604648 11.849773 -1.661419
7.5315084 11.99532 -1.6475192
7.4487567 12.105884 -1.6408205
-2.1757283 15.794644 -1.5968736
-2.37146 15.766195 -1.6069725
8.3171463 11.388018 -1.7700614
8.170042 11.479069 -1.7437717
8.0234423 11.588308 -1.7192113
7.8535233 11.70987 -1.6916164
7.7428808 11.778625 -1.6737388
-2.4806504 15.745594 -1.6122276
-2.6050744 15.692962 -1.6130852
8.3654966 11.230449 -1.7699857
8.3591747 11.001779 -1.7535008
8.3379517 11.103483 -1.7550031
8.3856916 10.790126 -1.7470467
8.4077806 10.564009 -1.740056
8.4129953 10.339499 -1.7307904
8.4311504 10.094934 -1.7247882
8.4135885 10.19735 -1.7247357
8.4417286 9.8996048 -1.7205855
8.4558125 9.6363888 -1.716611
8.4570875 9.7412586 -1.7197262
8.4637012 9.4647379 -1.7149153
-4.497592 14.447707 -1.6135112
-4.5190444 14.431213 -1.6135229
8.4644241 9.1629629 -1.7101759
8.4697104 9.2630606 -1.7131678
-4.6327672 14.307315 -1.6109526
8.4609632 9.0344715 -1.7087543
-4.7390599 14.185028 -1.6082739
8.4476671 8.8212109 -1.7051179
-4.854363 14.027821 -1.6023573
-4.9160638 13.976059 -1.6040884
8.4586048 8.5539141 -1.7086869
8.4496841 8.6643686 -1.7056344
-4.996542 13.85125 -1.5990102
8.4694357 8.3864384 -1.7133604
-5.1305752 13.684475 -1.5972054
8.4930859 8.0860338 -1.7244877
8.4804058 8.1968231 -1.7190115
-5.2480612 13.530312 -1.5955706
-5.3167553 13.462509 -1.5975689
8.4946127 7.9496379 -1.7284287
-5.3852906 13.361992 -1.5963677
8.4798355 7.737401 -1.7312956
-5.5254111 13.198629 -1.5999013
8.4701271 7.4802203 -1.7385092
8.4745092 7.577229 -1.7354926
-5.6517396 13.039941 -1.6027856
-5.7372813 12.965237 -1.6086205
8.7669678 7.1289883 -1.7560127
8.7700224 7.2436948 -1.751253
8.4608927 7.3208766 -1.7434242
-5.736969 12.932594 -1.6051362
-5.8029528 12.865566 -1.6091613
8.7589045 6.9887762 -1.7608844
8.4462223 7.1194973 -1.7495054
-5.9186368 12.711535 -1.6129014
8.7498779 6.7749171 -1.7708966
8.4128122 6.9178343 -1.7525705
-6.0472307 12.549418 -1.6195507
8.7634459 6.540741 -1.7884303
8.7598286 6.6515656 -1.7803997
8.371397 6.6662636 -1.7582014
8.3813095 6.7680745 -1.7542344
-6.1432462 12.41466 -1.6237212
-6.2011032 12.344987 -1.627171
8.7228212 6.355341 -1.7915589
8.3525534 6.4925051 -1.7653447
8.6863747 6.1562462 -1.7975361
8.3260536 6.2992105 -1.7736108
8.6584377 5.9529524 -1.8071443
8.2870054 6.1290684 -1.7775179
8.6497126 5.7290535 -1.8235675
8.6439552 5.8290653 -1.8137668
8.601388 5.5516901 -1.8286564
8.5086069 5.3803062 -1.8241668
8.3679028 5.3366423 -1.8034168
8.2942171 5.4549747 -1.7821767
8.2924509 5.2577863 -1.7978123
8.1712017 5.070107 -1.7955388
8.0942926 4.8912392 -1.7991306
8.0729456 4.8686342 -1.7970849
8.0466824 4.7875714 -1.8006672
7.9912128 4.6988335 -1.799597
7.9725924 4.4010849 -1.8343047
7.8985891 4.557323 -1.7971811
7.9069819 4.3110218 -1.8319334
7.806953 4.1440463 -1.8334364
7.7609758 4.0837831 -1.8314842
7.7415137 4.004828 -1.83959
7.6808348 3.9344344 -1.8369948
7.5892544 3.7876186 -1.8397962
7.5132866 3.6043181 -1.8525748
7.3903885 3.4526448 -1.8519125
7.2880015 3.329464 -1.8514707
7.2032733 3.248682 -1.8485725
7.073103 3.1380291 -1.842322
-6.4454789 8.505126 -1.4934676
6.9532242 3.0094395 -1.8418583
6.8675799 2.9448485 -1.8372827
6.7230434 2.8414283 -1.829434
6.6139746 2.7547841 -1.8256196
6.5117698 2.6896825 -1.8195204
6.3698263 2.5919032 -1.8130633
6.2732115 2.5334616 -1.8081567
6.1376224 2.4493365 -1.8018516
6.0246048 2.3798118 -1.7964776
-6.7036271 7.3454418 -1.579219
5.8989983 2.3030272 -1.7920408
5.7740822 2.2140207 -1.790715
5.6730719 2.1450515 -1.7890912
-7.0878859 7.1276684 -1.6734718
-7.1247387 7.247839 -1.6761328
5.5282264 2.0424032 -1.7889545
5.43327 1.9935455 -1.7854372
-7.0180988 6.8334441 -1.6729739
-7.0484514 6.9522338 -1.6732997
5.297297 1.9100237 -1.7837814
5.1618099 1.8661499 -1.774325
-6.8623514 6.549593 -1.6567607
-6.963449 6.6997805 -1.6691722
5.0388951 1.7852449 -1.7755824
4.9119201 1.7296128 -1.7710595
-6.6120267 6.2353973 -1.6250818
-6.6854806 6.369729 -1.6307453
-6.8460913 6.5200262 -1.6549159
4.7774954 1.6682663 -1.7678015
4.6506672 1.6175413 -1.7632792
-6.5816741 6.095088 -1.6291748
4.5193381 1.5483403 -1.7636715
-6.4933991 5.8437777 -1.6310279
-6.5326777 5.9639177 -1.6293274
4.2811961 1.4406543 -1.7614502
4.143569 1.3958273 -1.7567993
-6.3954964 5.5711718 -1.6354139
-6.4431672 5.6991282 -1.6335779
4.0161757 1.3374534 -1.7577132
3.8862433 1.2785931 -1.7581072
-6.2987599 5.3090281 -1.6409514
-6.3506885 5.4354725 -1.6388427
3.7592378 1.2491097 -1.7533998
3.6031289 1.1969013 -1.7515793
-6.1972079 5.0364447 -1.6491597
-6.2418189 5.1541982 -1.6454055
3.4693213 1.1533113 -1.7507098
3.3004355 1.1095567 -1.7475034
-6.0929122 4.7657294 -1.658717
-6.1450362 4.892642 -1.6548498
3.1947174 1.0882888 -1.744873
3.0494218 1.0432873 -1.7450025
-5.9711962 4.5112572 -1.6657377
-6.034358 4.6479459 -1.661294
2.9295449 0.99262571 -1.7490519
2.7899876 0.95457697 -1.7494937
2.6470904 0.90501451 -1.7530825
-5.8598857 4.2633848 -1.6761187
-5.9120154 4.3832984 -1.6702819
2.5261321 0.88263273 -1.7523756
2.3437943 0.84234095 -1.7531173
-5.7490764 3.9866343 -1.6925403
-5.8016939 4.1215444 -1.6839162
2.232065 0.81117964 -1.755514
2.0881515 0.77921295 -1.7576839
1.9482551 0.75880051 -1.7577752
-5.6258516 3.7322645 -1.7057365
-5.6878285 3.8595691 -1.6987575
1.8279692 0.73393774 -1.7596854
1.6295686 0.71350622 -1.7591197
1.5029482 0.71240759 -1.7564329
-5.5181532 3.472753 -1.7249916
-5.5781732 3.6053224 -1.7158014
1.6594381 0.47273922 -1.758335
1.6081167 0.46115685 -1.7594901
1.3896146 0.6983943 -1.7576106
1.1899395 0.68948269 -1.757062
1.0142279 0.69627857 -1.753633
-5.3985415 3.2041502 -1.7454212
-5.4584374 3.3379273 -1.7349857
1.481634 0.45228291 -1.7592555
1.2989793 0.44362164 -1.7580771
1.1399897 0.43653965 -1.7577437
0.90302956 0.68875837 -1.7548475
0.76002562 0.70412207 -1.7510328
0.55261135 0.72416878 -1.7468859
0.34497935 0.74678087 -1.7436907
0.23606145 0.77002525 -1.7398484
-5.2965856 2.9619365 -1.7672302
-5.3430033 3.0784268 -1.7560169
1.0267303 0.43103027 -1.7580566
0.86740148 0.44044828 -1.7549853
0.67354798 0.46166086 -1.7500477
0.47013009 0.49410772 -1.7431604
0.35035259 0.5134244 -1.7401019
0.13759124 0.78228331 -1.7382462
-0.057465792 0.82010221 -1.7335722
-0.26506114 0.84278679 -1.7342039
-0.4613502 0.87130737 -1.7342348
-0.58315837 0.88055658 -1.7369668
-5.1978869 2.7358971 -1.787941
-5.2447104 2.8293705 -1.7802128
0.24497968 0.523139 -1.7390943
0.05418551 0.5585866 -1.7339476
-0.14636946 0.58859873 -1.7314742
-0.34800971 0.62030745 -1.7299572
-0.53399575 0.63763571 -1.7324957
-0.59536922 0.63540173 -1.7355486
-0.76039088 0.65742016 -1.7374518
-0.96166742 0.69572067 -1.7380413
-1.1570119 0.72532892 -1.7415773
-1.3597785 0.77174139 -1.7430296
-1.5436853 0.8182888 -1.7438265
-1.6582054 0.85366011 -1.74344
-1.5917789 0.8174572 -1.7473923
-1.7621444 0.88258696 -1.7443676
-1.9397835 0.93557739 -1.7458709
-2.1234159 0.98025274 -1.7505635
-2.3132963 1.0381012 -1.7536979
-2.5160952 1.1029501 -1.757925
-2.7082486 1.1684117 -1.762017
-2.888628 1.2335796 -1.7664039
-3.0885863 1.2909989 -1.7752962
-3.2868085 1.3531547 -1.7844338
-3.4821749 1.4072127 -1.7958252
-3.6687851 1.4787235 -1.8035303
-3.8530254 1.5575724 -1.8106408
-3.9865093 1.6157155 -1.8163828
5.2471952 14.051182 -1.497761
5.1367388 14.120027 -1.4930881
4.9667606 14.235388 -1.4882684
4.7854552 14.352571 -1.4838489
4.6289878 14.459877 -1.4821808
5.6068397 13.729591 -1.5018398
5.4628148 13.857073 -1.4991326
5.3184676 13.976795 -1.4961979
6.0484705 13.322438 -1.5148226
5.936861 13.419952 -1.5096934
5.7875085 13.567451 -1.506447
5.6863818 13.646133 -1.5018196
6.4203129 12.989568 -1.5367801
6.2575145 13.129383 -1.5254107
6.1275349 13.254364 -1.5193245
6.8387671 12.602276 -1.5688714
6.7361946 12.698475 -1.5605828
6.577415 12.845174 -1.5477509
4.5853829 13.459579 -1.3500221
4.039084 13.777317 -1.3321697
6.910624 12.498045 -1.5712593
4.5836391 13.388777 -1.3370976
-6.1027942 9.5476255 -1.4275974
-5.6275015 9.1455784 -1.3716215
-5.8563361 9.2976036 -1.3688165
-5.8617792 9.3316946 -1.3707124
-5.6716828 8.9738274 -1.3794311
-5.5162902 8.6920748 -1.3424325
-5.7212472 8.8491869 -1.3713156
-5.5380478 8.4462566 -1.3484585
-6.2287755 8.2475395 -1.4487416
-6.3354979 8.3696451 -1.4706876
-6.1421285 8.0038242 -1.4346571
-6.2015047 8.1075773 -1.4455366
-6.0895286 7.8380432 -1.4274617
-6.1163378 7.627615 -1.440179
-6.2359586 7.4887981 -1.4712855
3.979331 13.711859 -1.3124247
4.5511918 13.292638 -1.3151754
4.382668 13.383932 -1.3066159
4.302752 13.449703 -1.3070815
3.8399978 13.606323 -1.273458
3.7337399 13.564147 -1.2515981
4.552999 13.168038 -1.293417
3.6409326 13.481481 -1.2243676
3.5047526 13.375202 -1.18662
3.3949122 13.283361 -1.1551493
0.35621697 14.485651 -1.257992
3.3182521 13.225471 -1.1342411
0.26655883 14.419023 -1.2443455
0.15732765 14.377807 -1.2372432
0.059633851 14.256733 -1.2125857
-0.15934265 14.226719 -1.2119182
-0.064489007 14.147249 -1.1919696
-0.17640042 14.098379 -1.1844264
-0.31539166 13.973426 -1.1623353
-0.43126476 13.91621 -1.1551695
-0.73186994 14.028185 -1.1941339
-0.85149777 14.155088 -1.2280737
-0.93837774 14.243954 -1.2528849
-0.52943969 13.910999 -1.1586881
-0.64236081 13.971142 -1.1770689
-5.2725258 8.5033159 -1.2874823
-5.137248 8.1813412 -1.2606333
3.2399063 13.162495 -1.1128901
3.1651039 13.102034 -1.0920451
3.0742559 13.028349 -1.0672852
2.927 12.938755 -1.0329348
2.8172688 12.875009 -1.00866
2.7469888 12.826619 -0.9911207
-2.5521803 15.434808 -1.6243492
-2.7124562 15.481215 -1.6488529
-2.8380532 15.50041 -1.6648475
-2.9691443 15.426273 -1.6638762
-3.1636453 15.281548 -1.6569427
-3.319272 15.151863 -1.6497681
-3.4158773 15.081224 -1.6481178
-3.5188756 14.996402 -1.6446847
-3.657371 14.884263 -1.6415453
-3.7427583 14.803246 -1.6378998
-3.8773112 14.702484 -1.6376644
-3.9874268 14.581045 -1.6312827
-4.0698781 14.508718 -1.6302596
-4.1822033 14.387951 -1.625826
-4.311873 14.249342 -1.6215763
-4.4068251 14.170107 -1.6228675
-4.4299412 14.139643 -1.6215776
-5.9415436 12.232456 -1.633358
-6.0370975 12.084375 -1.637122
-6.0895624 11.987507 -1.6380631
-6.1474257 11.919455 -1.6433475
-6.2442231 11.767671 -1.6490561
-6.3518658 11.596668 -1.6566412
-6.4598618 11.422572 -1.6649834
-6.5479536 11.251713 -1.6709582
-6.6528583 11.050275 -1.6793232
-6.7225094 10.883771 -1.6834766
-6.800899 10.693571 -1.6891816
-6.8829303 10.505337 -1.6973326
-6.9501767 10.325962 -1.7035652
-7.0174913 10.142704 -1.7106117
-7.0989676 9.9598722 -1.7224259
-7.1061649 9.9834356 -1.7245418
-6.968925 9.7269545 -1.6861527
-7.1178579 9.79708 -1.7216343
-7.1087646 9.5551033 -1.7133468
-7.0772877 8.7786531 -1.6981101
-7.1150494 8.8991919 -1.7064296
-7.1107855 8.7091045 -1.7056534
-6.9580779 7.4339762 -1.6969963
-6.9488273 7.4098253 -1.6964869
-5.0326824 2.9112701 -1.7977539
-4.9308591 2.6500053 -1.826862
-4.9925313 2.7776814 -1.8145378
-4.8167801 2.4099469 -1.851916
-4.8646655 2.5251184 -1.8379896
-3.9490314 1.878655 -1.8250177
-4.1322899 1.9222279 -1.842155
-4.3163004 1.9833732 -1.8565245
-4.5214729 2.029067 -1.8780683
-4.7082028 2.1368594 -1.8858134
-4.7764015 2.2451262 -1.8764436
6.7355943 12.399242 -1.5830702
6.6458945 12.485533 -1.5752339
6.5662131 12.582617 -1.5710249
-1.6169132 15.676803 -1.5979241
-1.6659251 15.668056 -1.5994809
7.1168761 12.064021 -1.6262233
6.95855 12.175793 -1.6041858
6.8076553 12.304163 -1.5869853
6.7117066 12.396113 -1.5778124
-1.7949537 15.617478 -1.5985571
-1.9374396 15.575777 -1.6007047
7.544992 11.660801 -1.6813905
7.4391818 11.751375 -1.6658295
7.2766171 11.896338 -1.6436079
7.194859 11.988518 -1.6354103
-2.0432601 15.556282 -1.6046199
-2.2446742 15.524828 -1.6148881
8.1043892 11.288639 -1.7793865
7.9408574 11.392848 -1.7491925
7.7668796 11.485715 -1.7164117
7.6265306 11.591209 -1.6933656
-2.3740692 15.48197 -1.6175345
-2.4793677 15.443969 -1.6192235
8.157609 11.054761 -1.7748631
8.1467533 11.161139 -1.7796506
8.1484365 10.88175 -1.7611781
8.1812286 10.594555 -1.7515078
8.1661768 10.707864 -1.7546978
8.2009983 10.437826 -1.7483292
8.2090683 10.122975 -1.7357901
8.2008047 10.239596 -1.7385619
8.2156858 9.9818325 -1.7314976
8.2458181 9.6787958 -1.7292572
8.2352123 9.7931328 -1.7300345
8.2566671 9.5410166 -1.7282662
8.2558975 9.3281403 -1.7236866
-4.3761826 14.174321 -1.6191509
8.2553368 9.0971985 -1.7207878
8.2564449 9.2071056 -1.7218214
-4.4833503 14.061174 -1.6171178
8.2563972 8.9116726 -1.7195834
-4.605823 13.912024 -1.612839
8.2479315 8.6927814 -1.7175366
-4.7334127 13.752266 -1.6089419
-4.8105326 13.696932 -1.6126441
8.2445154 8.4649534 -1.7182504
-4.8719978 13.592239 -1.6080804
8.2859554 8.1528339 -1.7337915
8.2596283 8.259038 -1.7252278
-5.0031199 13.42176 -1.6056466
8.277894 8.0343237 -1.7345512
-5.1318855 13.260103 -1.605496
8.2838001 7.8123522 -1.7423152
-5.2050223 13.155424 -1.6041412
-5.2816434 13.081825 -1.6082155
8.2686701 7.551877 -1.7480122
8.2609205 7.6218686 -1.7432423
-5.4010363 12.937329 -1.6114044
8.2548695 7.3965087 -1.7512738
-5.5269318 12.772932 -1.6141222
8.2017412 7.1955705 -1.7477444
-5.6226292 12.644501 -1.6169521
-5.6785784 12.570837 -1.6190815
8.146987 7.0042138 -1.7447087
-5.7718306 12.444347 -1.6226742
8.111311 6.8130989 -1.747467
-5.8872223 12.286621 -1.628113
8.0811987 6.5177422 -1.760815
8.087389 6.6284089 -1.7540377
-5.9781528 12.157914 -1.6326222
8.0658665 6.3954029 -1.7660868
8.253664 6.0178447 -1.7793269
8.0430164 6.1991262 -1.7763057
8.2429628 5.840663 -1.7924544
8.2439604 5.9004335 -1.7868677
8.0026054 6.0025682 -1.7837451
8.1996899 5.6930327 -1.7955757
8.2193422 5.7958636 -1.7908498
7.9535627 5.7967234 -1.7911376
8.1548452 5.5032659 -1.8034706
8.0371437 5.5432806 -1.7900417
7.8906136 5.5968962 -1.7958549
8.1091928 5.3608761 -1.8077122
7.9753447 5.3615832 -1.7950053
7.8149686 5.4228597 -1.7962316
7.9179935 5.1755953 -1.8027452
7.8566461 4.9886713 -1.8111256
7.7760844 4.8011985 -1.8158842
7.6754341 4.6207895 -1.816998
7.5750299 4.440433 -1.8194871
7.451283 4.2840209 -1.8143932
7.398314 4.2347956 -1.809568
7.3944726 4.1816578 -1.8174007
7.3178377 4.1162615 -1.8104879
7.2715321 4.0179362 -1.8154022
-6.2038498 8.2140846 -1.5028145
-6.3431015 8.3228159 -1.5335321
-6.4602494 8.5029545 -1.5583504
6.4228201 3.1608982 -1.7919086
-6.2309818 8.06987 -1.5121599
6.3169022 3.0903153 -1.7853317
6.2406111 3.01085 -1.7863823
-6.1660056 7.8272033 -1.5034375
-6.2121286 7.9520712 -1.5106745
6.0793262 2.903327 -1.7782639
5.968966 2.8427339 -1.7709759
-6.1496372 7.7105103 -1.5034913
-6.3568091 7.6274099 -1.5535356
5.8607664 2.751781 -1.7703515
-6.7801561 7.5868959 -1.6515068
5.7316084 2.661902 -1.7670947
5.6265316 2.5913596 -1.7644614
-6.9471412 7.4861608 -1.6927791
5.4918947 2.4900641 -1.7640333
5.3837113 2.4268227 -1.7604972
-6.9198465 7.2900591 -1.695065
5.2435198 2.3344259 -1.7591149
-6.8693385 7.0717535 -1.6937985
5.14785 2.277019 -1.7576026
5.0216579 2.2133837 -1.7530555
-6.7950525 6.7856159 -1.6929349
-6.8297935 6.9119282 -1.6933053
4.8867292 2.1401215 -1.7505751
4.7725706 2.0809069 -1.7482921
-6.4689293 6.4153571 -1.6446128
-6.6195168 6.5477982 -1.6684852
-6.7371898 6.6681285 -1.6872494
4.6410394 2.0170579 -1.7457992
4.5176849 1.9601583 -1.7428691
-6.3891926 6.1889534 -1.644303
-6.4274015 6.2981482 -1.643924
4.3742547 1.8839607 -1.742964
4.2465262 1.8315754 -1.739871
-6.2993298 5.921772 -1.6465952
-6.3407011 6.0531454 -1.6443992
4.1246934 1.7739768 -1.7395841
3.9772201 1.719986 -1.7363149
-6.2033749 5.6442881 -1.6516206
-6.2509236 5.7715597 -1.6499474
3.8530331 1.6716623 -1.7347673
3.7121816 1.6275253 -1.7314169
-6.1481133 5.4953675 -1.6543776
3.5998697 1.5900216 -1.7292935
3.446876 1.5447655 -1.7267913
3.3096099 1.5094342 -1.7236704
-6.0405054 5.2452688 -1.6579239
3.2019691 1.4624004 -1.7262375
3.0428658 1.417738 -1.7249471
-5.9379306 4.9826245 -1.6662376
2.9156337 1.3708105 -1.7273386
2.7904835 1.323885 -1.730558
-5.8217597 4.7231007 -1.6739066
2.661335 1.2806377 -1.7336282
2.4888668 1.2354879 -1.7350379
-5.6264291 4.3472004 -1.6833564
-5.6985526 4.4797816 -1.680179
2.372231 1.2070684 -1.7360034
2.234077 1.1821127 -1.735719
2.0708249 1.1532164 -1.7357837
-5.5363231 4.08672 -1.7025374
-5.5810781 4.220541 -1.6922565
1.956329 1.1336546 -1.7360896
1.7819054 1.1014695 -1.738463
1.62641 1.0876446 -1.7372664
-5.4105892 3.8287201 -1.7165688
-5.47191 3.963594 -1.7082261
1.5106802 1.0804434 -1.736189
1.3322381 1.0662298 -1.7367733
1.1659455 1.0610075 -1.7357697
-5.2806191 3.5703478 -1.73265
-5.3473253 3.7018957 -1.724203
1.0619081 1.0590615 -1.7351394
0.90394974 1.0720806 -1.7311342
0.69435829 1.0805774 -1.729061
0.50737214 1.1018491 -1.7251064
-5.1740971 3.3056555 -1.7555716
-5.2305579 3.429358 -1.7457981
0.408135 1.1083689 -1.7242992
0.28966105 1.1351285 -1.7197344
0.093197227 1.1680512 -1.7153853
-0.03864491 1.1926904 -1.7127756
-5.0734487 3.0455523 -1.7813522
-5.1274037 3.1703992 -1.7700559
-0.70712376 0.89212465 -1.7401702
-0.8702594 0.92202663 -1.7408651
-1.0696038 0.95639133 -1.7434757
-1.2721564 0.97642136 -1.751025
-1.4670357 1.0193005 -1.7540065
-1.6461519 1.0707593 -1.7547305
-1.5407983 1.0202618 -1.75906
-1.7066892 1.0734763 -1.7584389
-1.8523203 1.1253357 -1.7578312
-2.0468836 1.1910186 -1.75892
-2.2396145 1.2593246 -1.7604266
-2.4214816 1.3291745 -1.7619387
-2.6045256 1.3946843 -1.7655587
-2.805017 1.4580727 -1.7726038
-2.9952826 1.5228038 -1.7797759
-3.1784053 1.5810876 -1.7882358
-3.3732338 1.6461329 -1.7979995
-3.5654263 1.7170362 -1.8072366
-3.7408934 1.7980523 -1.8132826
-3.8478951 1.8577466 -1.8152877
4.8572607 14.022354 -1.4927596
4.6770968 14.124392 -1.4855582
4.5429831 14.234121 -1.487193
4.4314599 14.292696 -1.4831744
5.4578733 13.535828 -1.5039617
5.3721714 13.626696 -1.5047286
5.2327332 13.760715 -1.5047209
4.7737193 14.010815 -1.4788766
5.8458605 13.205761 -1.519504
5.7051454 13.341614 -1.5155433
5.5436773 13.465237 -1.5071555
6.3262424 12.799047 -1.5518118
6.175993 12.928115 -1.5406193
6.018033 13.061544 -1.5301794
5.9218998 13.129076 -1.5222282
3.9813156 13.694393 -1.3742325
6.5810771 12.537312 -1.5679245
6.4827752 12.645118 -1.5625323
6.4063845 12.727682 -1.5582051
4.3591628 13.392599 -1.3691957
4.1906528 13.398746 -1.3449591
3.8918457 13.603154 -1.3440093
4.5054073 13.14069 -1.345248
4.3874679 13.252172 -1.3473319
0.26715869 14.342625 -1.2918937
0.07178241 14.282348 -1.2821027
-5.4922233 9.0595541 -1.4083726
-5.4088278 8.6250334 -1.3853731
-5.1526909 8.3509617 -1.3262584
-5.224165 8.3579159 -1.3433568
-5.1755743 8.1348944 -1.3344657
-6.1348372 7.7111888 -1.4996442
4.4679708 13.108516 -1.3329841
4.1704431 13.295445 -1.3223015
3.7668924 13.487411 -1.3042152
3.6915979 13.465074 -1.2896074
3.5461035 13.371752 -1.251608
0.14425802 14.217611 -1.2652128
0.079019487 14.204087 -1.2636352
-0.077149272 14.080952 -1.2395431
-0.17295289 14.008507 -1.2266033
-0.15897679 13.986747 -1.2211032
-0.27015555 13.908232 -1.207225
-0.3952831 13.83266 -1.1956376
-0.53770912 13.861395 -1.2093033
-0.69486618 13.943937 -1.2365739
-4.9669981 8.1168747 -1.2850602
-2.5589218 15.186598 -1.657102
-2.4574804 15.111622 -1.6317688
-2.6866074 15.117879 -1.6564527
-2.7769723 15.037324 -1.6501988
-2.8866467 14.966671 -1.6478342
-3.0278211 14.850779 -1.6407672
-3.1239085 14.787064 -1.6400394
-3.2570391 14.684851 -1.6365808
-3.3543735 14.599938 -1.6332707
-3.4529552 14.533461 -1.6332639
-3.6048093 14.397848 -1.6283737
-3.7015533 14.313044 -1.6267196
-6.0647125 11.239168 -1.6485081
-6.1399698 11.099319 -1.6544261
-6.2503662 10.853474 -1.6607192
-6.3173847 10.718752 -1.6670563
-6.3863683 10.52724 -1.6711087
-6.4574747 10.334656 -1.6768249
-6.5226474 10.151537 -1.6830984
-6.5746574 9.9642963 -1.6873089
-6.6456351 9.7699337 -1.6967312
-6.6975737 9.5812483 -1.7034991
-6.7744217 9.4303503 -1.717557
-6.6761942 9.0335064 -1.6884857
-6.7211647 8.6882334 -1.6977627
-6.7030234 8.8193932 -1.693614
-6.7092071 8.571249 -1.6951849
-6.6654172 7.9904194 -1.6933134
-6.6533465 7.9116111 -1.6927112
-4.7250834 3.1309743 -1.787822
-4.6512752 2.9323235 -1.8111504
-4.6967287 3.0570936 -1.7963179
-4.5072327 2.6748977 -1.8353553
-4.590323 2.7998962 -1.8256085
-3.8440175 2.2394118 -1.8181438
-4.0068188 2.2763672 -1.8348757
-4.1936607 2.311646 -1.8566036
-4.3812237 2.3950853 -1.8695083
-4.4676328 2.5284615 -1.8570517
-1.3484966 15.335804 -1.5873299
6.5962968 12.0282 -1.5811077
6.5369158 12.096027 -1.5769484
-1.4711207 15.316476 -1.5910796
-1.6453367 15.284605 -1.5967832
6.9200406 11.694901 -1.6169987
6.809505 11.807562 -1.6039454
6.6575904 11.947353 -1.5856079
-1.777625 15.22759 -1.5946506
-1.9283165 15.188652 -1.5986236
7.4222465 11.283138 -1.6954278
7.279284 11.388178 -1.6708264
7.1190915 11.516333 -1.6451966
6.9890909 11.617691 -1.6249325
-2.0427747 15.126355 -1.5951824
-2.2140937 15.103392 -1.6063331
-2.3291645 15.0686 -1.609925
7.7875853 11.002007 -1.7616493
7.6193943 11.151701 -1.7323167
7.5065455 11.213083 -1.7096138
-2.3775868 15.058475 -1.6125163
7.8105092 10.753561 -1.7495862
7.8181715 10.858336 -1.7588694
7.8028021 10.580671 -1.7365969
7.8188686 10.261633 -1.7226042
7.8099232 10.379596 -1.7262985
7.8303328 10.133598 -1.7187676
7.835443 9.9162807 -1.7105559
-3.6398001 14.351578 -1.624831
7.8516932 9.6617203 -1.7054747
7.8356848 9.7793245 -1.7054164
-3.7727752 14.229116 -1.621648
7.8714099 9.475275 -1.7052649
-3.9148169 14.084546 -1.6165975
7.8818097 9.2343016 -1.7030231
7.8676472 9.3388386 -1.7014323
-4.0268879 13.957062 -1.6116843
-4.1035504 13.875769 -1.6094058
7.8759012 9.0464582 -1.6988409
-4.2007437 13.769789 -1.6072232
7.8980393 8.7679873 -1.7031466
7.8831224 8.8595095 -1.699371
-4.3378825 13.607867 -1.6031045
-4.4366894 13.482984 -1.5997268
-4.5006776 13.401272 -1.5977743
-4.5980191 13.272541 -1.594804
-4.728837 13.099405 -1.5926021
-4.8431554 12.959469 -1.5931313
-4.8994803 12.892695 -1.5945405
7.8676634 7.6750612 -1.7159472
-4.9929647 12.769432 -1.5949717
7.8288798 7.5217686 -1.7125235
7.8372521 7.5824389 -1.7120117
-5.1210356 12.609146 -1.5980415
7.7961607 7.3699651 -1.71122
-5.2431355 12.451809 -1.6020267
-5.314404 12.373657 -1.6066755
7.7570901 7.166543 -1.71181
-5.3726425 12.274961 -1.6062394
7.7168231 6.9654684 -1.7133455
-5.4877639 12.109929 -1.6106554
7.6707935 6.7651658 -1.7150924
-5.6036859 11.947619 -1.6169132
7.7747197 6.4556918 -1.7653687
7.6521101 6.6003962 -1.7228652
-5.7194295 11.782465 -1.6237776
7.7513771 6.3390932 -1.7692252
-5.793344 11.672033 -1.6283604
-5.8537784 11.590725 -1.6338446
-5.9500284 11.423031 -1.6392119
-6.0113215 11.313068 -1.6426004
7.714252 5.6702595 -1.7694527
7.6290092 5.4938788 -1.7679068
7.5628452 5.2989273 -1.7749884
7.5106058 5.1100945 -1.7861869
7.4214392 4.9345636 -1.7880337
7.3312607 4.7509904 -1.7922881
7.2294154 4.5831313 -1.7929357
7.102026 4.4206543 -1.7882593
7.0000415 4.2655172 -1.7897054
6.9268656 4.1888423 -1.7858304
6.8412933 4.0894246 -1.7836353
6.7744861 3.9986048 -1.7844775
-6.1716275 8.2378387 -1.5705186
-6.2648735 8.301631 -1.5917511
-6.5056891 8.5086756 -1.6467711
5.9556227 3.1595411 -1.775902
5.8590827 3.1142125 -1.7672857
-6.492949 8.0666065 -1.6509976
5.7398672 3.0202775 -1.7651275
-6.626503 7.8003449 -1.6894603
-6.6350856 7.9114728 -1.687915
5.6289682 2.9315553 -1.7637587
5.5179291 2.8613553 -1.7593135
-6.6154294 7.6199708 -1.6926116
5.371912 2.7517252 -1.7584118
5.2739301 2.6811008 -1.7575953
-6.5660887 7.3542309 -1.6918753
-6.6004477 7.4865589 -1.6941199
5.140696 2.5916438 -1.7563189
-6.4924259 7.0682654 -1.6882848
-6.526763 7.1882644 -1.6902982
5.0209966 2.5219088 -1.7534376
4.9035473 2.4562626 -1.7507974
-6.449379 6.906466 -1.6875662
4.7754502 2.3820992 -1.7490284
4.6547112 2.3241682 -1.7454662
-6.1035676 6.4621763 -1.6370769
-6.1700969 6.5261717 -1.6475127
-6.3608227 6.6746464 -1.681636
4.5192995 2.2631145 -1.741002
4.403235 2.2022085 -1.740358
-5.987886 6.2023311 -1.6315349
-6.0492659 6.3300276 -1.6348859
4.2865553 2.1460404 -1.7385815
4.1584344 2.0872951 -1.7370461
-5.9563985 6.0655127 -1.6361672
4.0284066 2.0373487 -1.7337649
3.8915448 1.9754605 -1.733284
-5.9068379 5.7986746 -1.6496391
-5.9189844 5.907371 -1.6420417
3.7514215 1.9237266 -1.7309939
3.6007977 1.8760233 -1.7271537
-5.8056583 5.530302 -1.6546937
-5.8489423 5.6454973 -1.6522789
3.484271 1.8420696 -1.7241312
3.3413382 1.8008909 -1.7212799
3.2104206 1.7481384 -1.7228848
-5.6877952 5.2579656 -1.6594436
-5.7499127 5.3927841 -1.6577442
3.0886478 1.7160039 -1.7210057
2.9241385 1.6748705 -1.7185708
-5.5472789 5.0012107 -1.6603911
-5.6194386 5.1315608 -1.6597064
2.8011336 1.6354342 -1.7198067
2.6492963 1.5850739 -1.7225717
-5.421814 4.75945 -1.6652192
-5.4968562 4.8932486 -1.6636173
2.5240078 1.5475717 -1.7245482
2.3677254 1.5205841 -1.7226259
2.2451153 1.4959044 -1.7226338
-5.2966599 4.5082493 -1.6738602
-5.3624377 4.6362586 -1.6693826
2.1136508 1.4680195 -1.7236903
1.9246343 1.4352269 -1.7245742
-5.1704068 4.2427969 -1.6872739
-5.246562 4.375649 -1.6825995
1.8241835 1.4166451 -1.7260903
1.6870192 1.411973 -1.7223564
1.4687622 1.3970671 -1.7208304
-5.0730376 3.9949532 -1.7062283
-5.1368346 4.1143937 -1.700007
1.2461846 1.3811817 -1.7209017
1.0280336 1.3839874 -1.7179985
0.87772924 1.3883948 -1.7163686
-4.9465728 3.7337861 -1.723814
-5.0109711 3.866488 -1.7145416
0.76843464 1.3849316 -1.7173531
0.60800612 1.4003081 -1.7142707
0.39928973 1.4203076 -1.7115458
0.21965635 1.4543672 -1.7059945
0.09943217 1.4750552 -1.7032617
-4.8523855 3.4723802 -1.7504462
-4.89885 3.5879793 -1.7392467
-4.7524686 3.2032847 -1.779528
-4.7955208 3.3290696 -1.7648708
-0.17491055 1.2090149 -1.7129819
-0.3127085 1.2223482 -1.714667
-0.44139898 1.2373538 -1.7163194
-0.38914907 1.2115874 -1.7202804
-0.5289371 1.2437224 -1.7185143
-0.73064017 1.2726684 -1.7213955
-0.94490433 1.2936883 -1.7281859
-1.1403865 1.3383212 -1.7296293
-1.2864588 1.3732343 -1.7309834
-1.3865694 1.3803148 -1.7362515
-1.5354844 1.4077301 -1.7413732
-1.7360862 1.4549727 -1.7464062
-1.9361101 1.51018 -1.7507473
-2.1169333 1.5827022 -1.7504483
-2.2936373 1.643539 -1.7538538
-2.4870162 1.7187386 -1.7569911
-2.6833625 1.7930493 -1.7623732
-2.873457 1.8627338 -1.7686481
-3.0660148 1.9287243 -1.7777293
-3.2458844 2.0001292 -1.7853304
-3.426044 2.0761619 -1.7930185
-3.6060586 2.1564918 -1.8009138
-3.7343612 2.2080564 -1.8084412
4.5512319 13.760313 -1.4694427
4.3858166 13.888116 -1.4701152
4.2641907 13.962917 -1.4674997
5.3917584 13.15128 -1.4997379
5.2407732 13.258024 -1.4909773
5.0752254 13.391399 -1.4855182
4.9445052 13.456779 -1.4751537
4.376349 13.581655 -1.4084867
5.8579178 12.763165 -1.5262976
5.7255721 12.867275 -1.5164468
5.5613828 13.005436 -1.5070995
5.4674888 13.086694 -1.5025867
4.7790136 13.31904 -1.4226817
6.3003964 12.357693 -1.5591453
6.2082558 12.444162 -1.5516096
6.0490994 12.581491 -1.5380565
5.9285417 12.684749 -1.5286605
3.6413345 13.45335 -1.3409981
6.4909515 12.129745 -1.5709405
6.3767114 12.278814 -1.5652174
0.30105579 14.528814 -1.3998585
0.25296378 14.377821 -1.3640857
0.18786633 14.382528 -1.3662294
0.16117382 14.248296 -1.3339593
0.062433958 14.196864 -1.3242248
-0.07321012 14.10253 -1.3058721
-0.171808 14.071398 -1.3016671
-0.21004391 13.981167 -1.282089
-0.6085937 13.879621 -1.2773935
-0.64047015 13.892786 -1.2828134
-5.6472125 8.9387779 -1.4437199
-5.6639419 8.8244362 -1.4466954
-5.0593715 8.1289492 -1.3698577
3.4895496 13.382412 -1.3058405
3.4069438 13.372755 -1.2934459
3.2524104 13.212152 -1.2389714
3.160048 13.105246 -1.203954
3.0600667 13.013153 -1.1712787
2.9511075 12.920732 -1.1380624
-0.27635229 13.902512 -1.2655708
-0.39481711 13.83101 -1.2545367
-0.51485789 13.828363 -1.2600054
2.8742533 12.862691 -1.116588
2.8342867 12.828611 -1.1046096
2.7781446 12.788916 -1.0887637
-2.3527389 14.907745 -1.6549368
-2.501936 14.819571 -1.6521209
-2.6511693 14.705721 -1.6447766
-2.7494454 14.639147 -1.6426629
-2.8903227 14.536625 -1.6387039
-2.9895124 14.4615 -1.6356256
-3.0806823 14.393438 -1.6339992
-3.2215524 14.285363 -1.6316708
-3.3294678 14.215185 -1.6325147
-5.9422355 10.715939 -1.6583389
-5.9904242 10.583096 -1.660633
-6.0673938 10.391512 -1.6665977
-6.0493531 10.485917 -1.6682986
-6.1350431 10.220893 -1.6731143
-6.2018433 10.034232 -1.6800095
-6.2615638 9.8353281 -1.6857926
-6.3243403 9.6444569 -1.6941392
-6.3349199 9.4444332 -1.6909131
-6.4008255 9.3388224 -1.7043357
-6.4989247 9.0182524 -1.7235057
-6.4556103 8.7942915 -1.7112671
-6.4830933 8.9031105 -1.718322
-6.438406 8.5872011 -1.7071055
-6.4108639 8.4853039 -1.7012086
-6.3902431 8.118556 -1.7008142
-6.3829832 7.8900013 -1.7044606
-6.4012151 8.0083952 -1.7059598
-6.3573747 7.7263246 -1.7034706
-6.3223495 7.4682803 -1.7046676
-6.3421774 7.5755696 -1.7050586
-6.2987905 7.3459525 -1.7047262
-4.4809966 3.279305 -1.7938021
-4.3706045 3.0368423 -1.8202331
-4.4424648 3.1791806 -1.8058302
-3.7248273 2.5403132 -1.8134965
-3.8014364 2.5601392 -1.8217598
-4.2504845 2.7986665 -1.8464761
-4.3041329 2.930872 -1.828993
-3.9049549 2.5803885 -1.8336385
-4.0708499 2.6303821 -1.8505807
-4.1841278 2.6946135 -1.856758
-1.1589426 15.047491 -1.5839986
6.3710079 11.906884 -1.5847268
6.2973924 11.969593 -1.5758644
-1.2257258 15.036333 -1.5861303
-1.3884102 15.003056 -1.5900542
-1.5268832 14.973426 -1.593794
6.6721206 11.593808 -1.6179106
6.5621562 11.711393 -1.6056508
6.4407659 11.828242 -1.5910901
-1.6329612 14.945667 -1.5957726
-1.8114072 14.907314 -1.6024671
7.0000086 11.242146 -1.6607784
6.8563662 11.382809 -1.6395948
6.7326155 11.504345 -1.6225933
-1.9328858 14.866768 -1.6044668
-2.0720797 14.815437 -1.6063836
-2.2393575 14.834896 -1.6275772
7.5131183 10.879786 -1.7587332
7.3515973 11.005261 -1.7276529
7.1826472 11.110115 -1.6942046
7.0717959 11.178158 -1.6725832
-2.1762662 14.78187 -1.6091274
7.5522013 10.641395 -1.7510428
7.5528865 10.753266 -1.7589577
7.5365601 10.47126 -1.7350197
7.5409589 10.259276 -1.7234443
-3.1134148 14.353264 -1.6303669
7.5567236 10.019935 -1.7149531
7.5487981 10.131972 -1.7181865
-3.240272 14.256214 -1.6284772
-3.3390579 14.189173 -1.6288065
7.5690794 9.8055935 -1.7088615
-3.4327374 14.090634 -1.6236554
7.5902047 9.5743752 -1.706103
7.5918698 9.6826754 -1.7098181
-3.5872102 13.940042 -1.6180166
7.6040902 9.372366 -1.7040642
-3.6620712 13.848791 -1.6123739
-3.7452259 13.778437 -1.612515
7.6226969 9.1227961 -1.7037017
7.6105556 9.2418976 -1.7026694
-3.8864489 13.634699 -1.6094345
7.6247702 8.9218588 -1.701954
-3.9854751 13.519472 -1.605546
-4.0486932 13.449222 -1.6041692
7.6232963 8.6308508 -1.7007905
7.6249433 8.7332001 -1.7012001
-4.1538424 13.314178 -1.5997117
7.6214557 8.5432978 -1.7010027
-4.2900887 13.152684 -1.5972676
-4.3937869 13.017784 -1.5946887
-4.4617095 12.93441 -1.5941739
-4.5422754 12.826611 -1.5933807
-4.6708994 12.659432 -1.5934433
-4.8008614 12.493307 -1.59568
-4.9282775 12.326601 -1.5987601
-5.0578179 12.157792 -1.6036553
-5.1778393 11.98448 -1.6077332
-5.2859583 11.827498 -1.6125923
-5.3497581 11.751846 -1.6180701
-5.4015937 11.647283 -1.6180383
7.7376051 6.2441945 -1.7741981
-5.5248289 11.483124 -1.6282399
7.7148719 6.0990219 -1.7816733
7.7267294 6.2000604 -1.7752479
-5.6251068 11.306315 -1.6336242
7.667305 5.9212637 -1.7867254
-5.7247014 11.116758 -1.639661
7.6126103 5.7185545 -1.7938499
7.4646835 5.767005 -1.7700578
-5.8115516 10.966006 -1.646955
7.5800138 5.5828981 -1.800239
7.4052711 5.589716 -1.7752353
-5.8967342 10.774574 -1.6521294
7.3280697 5.3976984 -1.7792462
7.2522445 5.2171135 -1.7839962
7.170083 5.0352731 -1.7887024
7.0724673 4.8533926 -1.7911757
6.9645548 4.6831851 -1.7910078
6.9014735 4.6287098 -1.7844095
6.8244209 4.5182648 -1.7837539
6.7737174 4.4068441 -1.7898191
-5.9995484 9.4032402 -1.6080835
-5.6559896 9.0159025 -1.51507
-6.2790685 9.2520084 -1.6734031
5.9713478 3.5020218 -1.7838522
-6.2171373 8.2777834 -1.6550084
-6.2903929 8.3747005 -1.6718123
5.8668685 3.3998499 -1.7841364
-6.2784643 8.1769009 -1.6716142
5.7783213 3.3166742 -1.7839919
5.6678495 3.2535472 -1.7761112
5.5094886 3.1364298 -1.7720542
5.4186687 3.0646458 -1.7713321
5.2916141 2.9718108 -1.7694286
-6.2947898 7.3940797 -1.7009971
5.1776242 2.881741 -1.7705215
5.0674958 2.8162489 -1.7666692
-6.2467742 7.1833239 -1.6995806
-6.2831507 7.2893505 -1.7032368
4.9225354 2.7184534 -1.7659525
4.8225875 2.6551561 -1.7651175
-6.1993966 7.0355906 -1.6961753
4.6955814 2.5863385 -1.7621373
4.5711641 2.5227437 -1.7590283
-5.956778 6.615984 -1.6652381
-6.1148252 6.7672153 -1.6924244
-6.1686349 6.8980432 -1.6968626
4.4355979 2.4533429 -1.7564232
4.3060055 2.3964019 -1.7524441
-5.8121109 6.4335346 -1.6443535
-5.9343715 6.5863571 -1.661962
-6.0499787 6.6438227 -1.6857612
4.1821289 2.331614 -1.7519724
4.0466061 2.2848797 -1.7466664
-5.7223668 6.1777945 -1.6448749
-5.7672811 6.2948561 -1.6449958
3.9177322 2.2119465 -1.7492694
-5.6276283 5.9011946 -1.6492462
-5.6804838 6.0261612 -1.6491771
3.6742377 2.1160498 -1.7457443
3.5288949 2.0673513 -1.7426629
-5.5267639 5.6395612 -1.6535511
-5.5900798 5.7606373 -1.6548804
3.3987823 2.0269065 -1.7396144
3.2421184 1.9792266 -1.7368667
-5.4139581 5.3835397 -1.6573911
-5.4735436 5.5054646 -1.6565819
3.1215158 1.9471412 -1.734692
2.9739127 1.9037991 -1.7338191
-5.2840981 5.1121511 -1.6621417
-5.3518186 5.2399158 -1.6610539
2.8496928 1.8722425 -1.7317922
2.7151906 1.8289571 -1.7338535
2.5754533 1.7927527 -1.7337853
-5.1603074 4.8591042 -1.6690903
-5.228116 5.000793 -1.6644642
2.4543533 1.7611651 -1.7346957
2.2841325 1.7237139 -1.7349254
-5.0270729 4.6017971 -1.6776457
-5.0974798 4.7446871 -1.6718227
2.1701589 1.7045922 -1.7338685
2.0082266 1.6758318 -1.7344558
1.8561478 1.6453037 -1.7365516
-4.8996148 4.3614421 -1.6875787
-4.958333 4.4873457 -1.6804923
1.7403936 1.6351066 -1.7355268
1.5580735 1.621079 -1.7337626
1.4291013 1.6136489 -1.7324162
-4.78547 4.0981975 -1.7071089
-4.8461633 4.2388744 -1.69672
-4.6793771 3.8489404 -1.7281501
-4.5768085 3.5789366 -1.7559773
-4.6300988 3.7049375 -1.74367
0.12006348 1.4663782 -1.7056162
-0.0058789253 1.4993625 -1.7002692
-4.5025768 3.3587413 -1.7828748
-4.5306759 3.4376626 -1.7730504
-0.021942735 1.4941959 -1.7022818
-0.2027756 1.5256081 -1.7004788
-0.40499973 1.5380459 -1.7058461
-0.60866368 1.5530605 -1.7122515
-0.72168517 1.5774317 -1.7119662
-0.82924938 1.5869532 -1.7163724
-1.021649 1.6236053 -1.71971
-1.2308639 1.6445951 -1.7295694
-1.4440988 1.6591158 -1.7430797
-1.6355497 1.7119927 -1.7461771
-1.7923814 1.7691603 -1.7459847
-2.4011149 2.0123472 -1.750888
-2.5644784 2.0914936 -1.7516266
-2.7476301 2.1747513 -1.7552712
-2.9313083 2.2437034 -1.7635119
-3.1131363 2.3152585 -1.7720615
-3.2946253 2.3934317 -1.7802832
-3.4836831 2.4684238 -1.7918034
-3.6221089 2.5200686 -1.8019408
-1.8338796 1.7721257 -1.7495632
-2.0185852 1.8259974 -1.754548
-2.203783 1.8972454 -1.7565739
-2.3472266 1.9640093 -1.756407
4.3939362 13.529625 -1.4665288
4.2899365 13.63672 -1.4722649
4.1232848 13.714275 -1.4630941
3.9904699 13.685369 -1.4385009
5.2345233 12.978315 -1.5078074
5.1281986 13.039146 -1.4990014
4.9656348 13.149761 -1.489614
4.8187103 13.183592 -1.4693038
4.3972602 13.463252 -1.4535989
4.3158145 13.473305 -1.4429079
3.8955317 13.652325 -1.4183091
5.621366 12.645576 -1.5281692
5.4847412 12.75679 -1.5186836
5.2992387 12.872116 -1.5019255
5.2101378 12.981859 -1.5044404
4.6935902 13.116269 -1.4352529
4.5397429 13.135952 -1.4123859
4.3497472 13.193605 -1.392272
4.2063117 13.296564 -1.3897524
6.0544543 12.235882 -1.5579064
5.9469295 12.329899 -1.5479642
5.7857833 12.478577 -1.5359963
5.6883416 12.572216 -1.5304506
6.2247791 12.029428 -1.5673268
6.1216526 12.153883 -1.5610529
0.047124922 14.220118 -1.3974762
-0.087171555 14.112923 -1.374725
-0.17523277 14.040487 -1.360111
-0.31141531 13.946922 -1.3430052
-0.40944242 13.879816 -1.330771
-5.4794869 9.0600119 -1.4723189
3.2471733 13.290131 -1.3167155
2.7045097 12.796375 -1.1374831
-2.194787 14.682903 -1.669614
-2.3049731 14.653841 -1.6748608
-2.4214187 14.558276 -1.6669267
-2.534224 14.481533 -1.6635981
-2.6303883 14.415672 -1.6609981
-2.7778244 14.298452 -1.6546986
-2.8826303 14.228082 -1.6534733
-2.9885192 14.143214 -1.6506532
-3.1334114 14.025334 -1.6467152
-3.2301006 13.959248 -1.6478758
-3.3268437 13.852364 -1.6409692
-3.4320984 13.761382 -1.6393715
-5.5997467 10.794205 -1.6629207
-5.6598701 10.660479 -1.6668708
-5.7359099 10.488626 -1.6730512
-5.8138127 10.305232 -1.680131
-5.8839784 10.128906 -1.6874877
-5.9487729 9.9406633 -1.693797
-6.0003357 9.7352028 -1.6979971
-6.054461 9.5425777 -1.7046014
-6.0433507 9.2940512 -1.6948562
-6.0846233 9.3871803 -1.707913
-6.1091571 9.1146698 -1.7081591
-6.1991191 8.9635239 -1.7292464
-6.2536225 8.7764959 -1.7420511
-6.2393308 8.5169744 -1.7387244
-6.1533899 7.9826937 -1.724126
-6.1704679 8.0670557 -1.7269844
-6.1412888 7.8596911 -1.7248694
-6.1132188 7.5431538 -1.7292906
-6.1235881 7.6601663 -1.7271307
-6.0783243 7.3993063 -1.7265017
-6.0111017 7.1436234 -1.7225451
-6.0442162 7.256783 -1.7249861
-5.9332657 6.8496284 -1.7213554
-5.9729071 6.9805846 -1.7225875
-5.9032216 6.7678499 -1.7194022
-4.2755404 3.4035931 -1.811744
-4.3283916 3.5414853 -1.7951198
-4.182982 3.1450119 -1.8465704
-4.2153635 3.2737966 -1.8263512
-3.4683142 2.7350259 -1.8094455
-3.5891175 2.7781963 -1.8202226
-3.783802 2.8158817 -1.8447638
-3.9815407 2.8729157 -1.8670089
-4.1288409 3.0140233 -1.8636256
4.1102653 13.712276 -1.5315456
0.23666614 14.932093 -1.5731013
0.14826632 14.941145 -1.5770651
5.8466144 12.152837 -1.57075
5.7827492 12.224195 -1.567614
-0.86100793 14.829798 -1.5905403
-1.0029842 14.820858 -1.5975779
6.1630778 11.805689 -1.5948718
6.0252447 11.964371 -1.5842499
5.9149399 12.050366 -1.5710313
-1.1198577 14.794379 -1.5991006
-1.2649106 14.782207 -1.6067245
-1.4265116 14.753038 -1.6125339
6.469172 11.491422 -1.6296484
6.3177776 11.652103 -1.6121186
-1.54434 14.718105 -1.6141837
-1.6898407 14.673337 -1.6166071
6.8615022 11.059013 -1.6822646
6.7729836 11.148444 -1.6685193
6.6162663 11.303773 -1.6451778
6.5304284 11.39743 -1.6341854
-1.8148283 14.631708 -1.6184202
-1.9570373 14.605086 -1.6266385
7.2764559 10.746768 -1.7642405
7.0929208 10.879858 -1.7265614
6.9307547 10.99035 -1.6942359
7.3402772 10.540087 -1.7651924
7.3092084 10.649715 -1.764967
7.3274088 10.323664 -1.7469344
7.3335161 10.070206 -1.7330047
7.3256116 10.167599 -1.736569
7.3462029 9.9090672 -1.7281064
-3.4696856 13.702219 -1.6338578
-3.5448122 13.625854 -1.6311821
-3.6310668 13.539061 -1.6290432
-3.7771215 13.378902 -1.6243641
-3.877224 13.262749 -1.6210299
-3.9412599 13.19837 -1.6210177
-4.0511646 13.059556 -1.6169163
-4.184114 12.8895 -1.6136327
-4.2886872 12.738632 -1.6090306
-4.3363714 12.700272 -1.6125911
-4.4337234 12.555288 -1.6095576
-4.5625229 12.384815 -1.6101954
7.5469251 7.3804374 -1.7154719
-4.6906719 12.221642 -1.6138879
7.484169 7.1627684 -1.7100817
7.497931 7.2740779 -1.7078122
-4.7556157 12.1244 -1.613883
-4.8183775 12.055801 -1.6185051
7.453372 7.0608039 -1.7085854
-4.9271107 11.894252 -1.6213913
7.4133692 6.8666186 -1.711315
-5.0492215 11.72838 -1.6280361
7.3766398 6.6728001 -1.7160785
-5.1513686 11.563826 -1.6319627
7.3294907 6.4807272 -1.7194784
-5.2321734 11.420581 -1.6349511
-5.2948546 11.337757 -1.6404746
7.3833141 6.1850133 -1.7612566
7.3012691 6.3341155 -1.7255079
-5.3686719 11.201661 -1.6443275
7.3550682 6.0229435 -1.7699567
-5.4664097 11.029912 -1.6512752
7.2745814 5.8298802 -1.7694072
7.1129332 5.921093 -1.7157879
6.8769627 5.9196072 -1.7119839
-5.5439434 10.870865 -1.6555419
7.1714082 5.6974163 -1.7579753
6.8343253 5.8033609 -1.7149506
7.0553355 5.5133133 -1.7511804
6.7800274 5.6880116 -1.7152146
6.9736323 5.3217916 -1.7559181
6.9111152 5.1532221 -1.7639116
6.8586669 5.074254 -1.7622089
6.8542275 5.0181055 -1.7695881
6.7915759 4.9606705 -1.7627333
6.674891 4.7967663 -1.7597798
6.5570383 4.6269584 -1.7592524
6.4516449 4.4924316 -1.7570677
6.3822708 4.4117298 -1.7550081
-5.9611187 9.3175144 -1.6738915
6.3360133 4.3450322 -1.756254
-5.8149824 9.1171227 -1.6327083
-5.964643 9.1824265 -1.6720092
-5.4482846 8.6092367 -1.5328823
-5.3407969 8.2174835 -1.5083418
-6.0008683 8.3782263 -1.6774713
5.5501184 3.4859681 -1.759389
5.4039779 3.379549 -1.7546626
5.3049822 3.3058085 -1.7519282
5.1929584 3.2227135 -1.7504323
5.0679932 3.1269193 -1.7501791
4.9667578 3.0554442 -1.7494699
4.8197613 2.9573445 -1.7480352
4.7150187 2.8905268 -1.7470411
4.5867453 2.8179073 -1.7442373
4.4613099 2.7462134 -1.7423728
4.3379102 2.6885376 -1.7386562
-5.6266766 6.5060439 -1.6696657
-5.7043786 6.6111908 -1.6808311
-5.8615565 6.704051 -1.7132214
4.2048697 2.6265092 -1.7352697
4.0866156 2.5654721 -1.7345804
-5.5027146 6.2474856 -1.6620264
-5.574162 6.3832946 -1.6673309
3.9618459 2.5068107 -1.7336196
3.8312063 2.4519815 -1.7306193
-5.4197631 5.9925337 -1.6668768
-5.4517508 6.096436 -1.6639354
3.7032242 2.3962488 -1.7294903
3.5549226 2.3455544 -1.7263242
-5.3043957 5.7222242 -1.6683317
-5.3601861 5.8494415 -1.6677527
3.3088489 2.2612834 -1.7223569
3.1485658 2.2160234 -1.7185816
-5.1999593 5.4958315 -1.670626
-5.2526851 5.6006269 -1.6704494
3.0325909 2.1805906 -1.7176769
2.8714113 2.142776 -1.7137699
-5.0709348 5.2203999 -1.6758124
-5.1447401 5.3518519 -1.6760511
-5.2234035 5.461915 -1.6799129
2.7475019 2.1045046 -1.7145749
2.5978169 2.0556364 -1.7169237
-4.9458961 4.9557943 -1.6843626
-5.0105648 5.0944557 -1.6796247
2.4785094 2.0288954 -1.7160584
2.3519218 2.0114503 -1.7126667
2.1708751 1.9727335 -1.7132546
-4.8196516 4.7043586 -1.6937122
-4.8861871 4.8427515 -1.6877129
2.0520301 1.9523268 -1.7126057
1.8774017 1.9245267 -1.7130574
1.7286348 1.9057364 -1.712371
-4.6983314 4.4477959 -1.7085042
-4.7594633 4.5779819 -1.7006143
1.6199754 1.8969178 -1.7115066
1.4344459 1.8852968 -1.710035
1.2703996 1.8809514 -1.7078816
-4.5850811 4.1947098 -1.7267441
-4.6443644 4.3256922 -1.7169886
1.3664196 1.6174154 -1.7302101
1.1719538 1.8771124 -1.7077584
1.0062575 1.8711219 -1.7082889
0.80220467 1.8799906 -1.705665
0.68230665 1.8847103 -1.7048875
-4.4734602 3.9452381 -1.747834
-4.5293026 4.0704017 -1.7374251
1.2862415 1.6046634 -1.7322989
1.1211721 1.6040287 -1.7305874
0.92893887 1.6075134 -1.7285391
0.78199422 1.618916 -1.7251307
0.57101697 1.889195 -1.7051557
0.37473273 1.904027 -1.7043686
0.18084908 1.9280176 -1.7025559
-4.3776073 3.6745939 -1.7792774
-4.4186888 3.7911067 -1.7653736
0.81218803 1.5982633 -1.7307723
0.67617416 1.6164556 -1.7267675
0.482458 1.6243711 -1.7270204
0.28069836 1.6491985 -1.7237786
0.12633187 1.6775732 -1.7201456
0.032183707 1.6853619 -1.7208326
-0.12144995 1.7147021 -1.7185133
-0.32427454 1.744225 -1.7193409
-0.53045893 1.7633767 -1.724965
-0.70541632 1.7895961 -1.7283555
-0.80666947 1.7996969 -1.7322148
-0.94384825 1.814322 -1.7379469
-1.1616546 1.8237243 -1.7520849
-1.3603536 1.8799038 -1.753702
-1.5494896 1.9296851 -1.7577518
-1.7460738 1.9761972 -1.7649878
-1.9305912 2.0404353 -1.7678387
-2.1133256 2.1112065 -1.7700003
-2.2969756 2.2097654 -1.7671592
-2.4721341 2.2927194 -1.7685319
-2.6597543 2.3763738 -1.772666
-2.850626 2.4603219 -1.7790558
-3.0221653 2.5530925 -1.7820444
-3.2027836 2.644393 -1.7882874
-3.37363 2.7104235 -1.8002281
-3.4877596 2.7643576 -1.8062643
-1.7594968 1.9536943 -1.7719162
-1.9647413 2.0397902 -1.7713385
-2.1489229 2.1144094 -1.7735655
4.1570106 13.621845 -1.5191077
3.9662294 13.691103 -1.505619
4.2143207 13.510126 -1.5040628
4.1785569 13.588121 -1.5149024
3.8736868 13.643181 -1.4816874
5.0089183 12.88994 -1.5190612
4.8984046 12.969866 -1.5129287
4.7256193 13.069828 -1.5001186
4.5334425 13.110912 -1.4740299
4.4255786 13.118546 -1.4563142
4.1832633 13.301812 -1.4546418
3.6315522 13.524008 -1.4210887
5.5156231 12.458052 -1.5461984
5.3909822 12.557705 -1.5367118
5.2385049 12.688143 -1.5278912
5.0642357 12.777419 -1.508881
4.2856827 13.083229 -1.4257052
4.1476169 13.095634 -1.4056309
3.4743004 13.419598 -1.3765872
3.3995543 13.394455 -1.3605307
5.8305364 12.147682 -1.5660909
5.6995816 12.297533 -1.5600995
5.564105 12.394707 -1.5459996
3.2314863 13.237276 -1.3519419
3.1571155 13.209826 -1.3353267
5.8747983 12.069181 -1.5642209
0.066515684 14.179107 -1.4397347
-0.027649045 14.092364 -1.4200962
-0.15987492 13.902493 -1.3764133
-0.23905861 13.918773 -1.3837895
-5.1353788 8.225544 -1.4554831
-5.2527733 8.2936401 -1.4847617
-5.0839548 8.1382771 -1.443449
3.1093817 13.15509 -1.3160679
2.6981246 12.758291 -1.1699972
-2.0770779 14.424538 -1.6589668
-2.2788429 14.287971 -1.6507183
-2.4224381 14.196131 -1.6476979
-2.4874778 14.146187 -1.6448132
-2.6155767 14.059403 -1.6424184
-5.600153 10.021152 -1.6710269
-5.6581917 9.7978621 -1.6742018
-5.702816 9.614686 -1.6780244
-5.7488704 9.4305334 -1.6836498
-5.7936559 9.2332172 -1.6901023
-5.8348198 9.0356007 -1.6970025
-5.8796105 8.8350163 -1.7064131
-5.8734126 8.5745049 -1.7037489
-5.9053106 8.7017803 -1.7126931
-5.9531746 8.4557209 -1.7259122
-5.9524179 8.2617979 -1.7280506
-5.8945332 7.9826789 -1.7183981
-5.9143353 8.0917912 -1.7210295
-5.8417482 7.6594477 -1.7147672
-5.8631043 7.7792797 -1.7160082
-5.8315568 7.5279727 -1.7178087
-5.7902603 7.2369461 -1.7211211
-5.8086343 7.3581157 -1.719638
-5.7481899 7.059731 -1.7207665
-5.7048087 6.8998661 -1.7199819
-4.0802269 3.6073608 -1.7947245
-3.5529375 3.0978036 -1.8042294
-3.6064782 3.1272826 -1.8075727
-4.0104179 3.3653097 -1.831305
-4.0648503 3.4910159 -1.8153299
-3.7082591 3.1426625 -1.8221475
-3.8594995 3.1778245 -1.8426973
-3.9503365 3.2468967 -1.8444967
3.6645041 13.82226 -1.5481238
3.6274037 13.8352 -1.5461227
4.1809688 13.43386 -1.53633
4.0544357 13.581242 -1.5495453
3.9418964 13.630486 -1.5435914
3.5716119 13.7659 -1.5224868
0.31617218 14.657104 -1.5586051
0.21356487 14.666597 -1.5634233
-0.23842382 14.638683 -1.5697232
-0.52803755 14.617899 -1.5775837
-0.59287155 14.607739 -1.5784669
0.055781722 14.193089 -1.5027698
-0.70845962 14.59479 -1.5817353
-0.90030134 14.565674 -1.5868241
6.0159063 11.616883 -1.5886314
5.9523311 11.671348 -1.5806026
-0.030110717 14.103344 -1.4817433
-1.0141207 14.547118 -1.590397
-1.1403595 14.524225 -1.5938398
-1.3124992 14.488451 -1.5989412
6.3282423 11.279609 -1.6249444
6.2271485 11.388826 -1.6124283
6.0845666 11.533279 -1.5945263
-1.4366103 14.463987 -1.6035465
-1.5852712 14.414228 -1.6052626
6.5210123 11.030192 -1.647679
6.3897271 11.179461 -1.6293647
-1.7107233 14.386462 -1.6109129
-1.8291448 14.371214 -1.6192263
7.1102657 10.559994 -1.7638304
6.9977536 10.635808 -1.7389024
6.8297215 10.730937 -1.7011942
6.654707 10.858999 -1.6658049
7.1209216 10.414321 -1.7556243
-2.4753351 14.135983 -1.6406108
-2.5302577 14.101685 -1.6405034
7.0988407 10.204733 -1.7348328
-2.6747289 13.998915 -1.6374173
-2.7675843 13.951149 -1.6400822
7.1068215 9.9717073 -1.7227173
7.0950894 10.077888 -1.7258934
-2.8544536 13.869656 -1.6347934
7.3767381 9.6149368 -1.7239336
7.3687921 9.734026 -1.726555
7.1196957 9.7680159 -1.7159261
-3.0105515 13.744596 -1.6314747
-3.0982518 13.672407 -1.6300834
7.3857226 9.4585724 -1.7211677
7.136899 9.5122757 -1.7098998
7.1337423 9.6253624 -1.7131881
-3.1872921 13.584576 -1.6263759
7.4126244 9.1609526 -1.7209983
7.4046359 9.2750702 -1.7213477
7.1504302 9.3254061 -1.7076149
-3.3418713 13.42878 -1.6202921
-3.4386334 13.35936 -1.6225352
7.4193721 9.0134745 -1.7207043
